ply
format ascii 1.0
element vertex 1525
property float x
property float y
property float z
end_header
-5.938726 -2.971796 -40.787166
-7.361421 -3.897198 -42.882646
-6.118493 -3.109960 -40.890349
-6.565087 -2.761065 -40.572822
-6.565087 -2.761065 -40.572822
-11.968974 -3.063977 -44.883491
-7.214950 -5.110631 -43.741783
-6.652482 -5.297308 -43.475210
-10.643481 -7.248456 -49.009995
-7.898037 -2.773451 -41.232886
-7.005217 -4.532863 -42.550179
-11.799531 -7.103682 -49.339142
-12.844708 -6.050837 -48.468477
-8.133828 -4.653366 -42.749784
-12.709963 -7.401531 -49.689074
-12.724469 -7.394527 -49.685516
-7.710078 -5.787025 -43.399598
-8.555096 -5.620210 -43.876089
-13.096101 -7.154453 -49.588404
-13.390056 -7.969049 -50.638419
-7.703692 -4.631282 -41.670770
-8.863616 -4.031076 -41.863293
-8.863616 -4.031076 -41.863293
-12.995875 -7.845284 -50.005830
-8.632234 -5.226227 -42.972651
-12.677328 -8.684767 -50.698010
-7.723127 -6.648323 -43.647162
-7.723127 -6.648323 -43.647162
-10.058677 -9.437746 -48.968398
-8.807671 -5.167792 -42.543453
-8.807671 -5.167792 -42.543453
-8.421403 -6.263620 -42.956843
-8.103678 -6.334437 -42.514846
-8.103678 -6.334437 -42.514846
-7.882514 -5.459739 -41.186226
-9.254719 -6.043219 -42.948704
-7.154664 -6.231328 -41.179691
-10.535302 -4.917603 -42.508268
-6.398454 -7.283313 -41.330353
-8.201739 -6.655217 -42.199809
-2.435940 -9.893737 -40.107998
-8.370636 -6.833651 -41.920356
-8.905352 -6.923450 -41.828597
-9.209617 -7.162879 -42.160457
-7.900058 -7.784454 -40.954130
-12.601030 -10.230165 -48.337377
-10.162988 -6.716999 -41.570025
-14.064985 -5.826518 -44.413554
-8.750410 -7.062559 -40.172559
-11.016563 -5.663276 -40.934562
-11.016563 -5.663276 -40.934562
-1.461115 -16.071277 -42.433031
-10.045424 -7.748539 -41.183891
-13.330219 -10.623786 -48.076932
-10.031347 -7.452396 -40.771852
-11.273895 -7.175589 -41.487400
-8.541224 -13.528075 -45.533105
0.702869 -13.666908 -35.305552
-11.145470 -7.741774 -41.575732
-11.652599 -7.403525 -41.244254
-7.391397 -10.306362 -39.465552
-11.954800 -10.400329 -44.136823
-10.602811 -12.445542 -44.234459
-11.199992 -9.453763 -41.666003
-6.756655 -12.147603 -39.171606
-13.324367 -11.477384 -46.405023
-10.979972 -12.299772 -43.995780
-6.788637 -12.730460 -38.791079
-12.672448 -13.398319 -46.528161
-12.430102 -8.868653 -41.140371
-5.433577 -14.861012 -38.587367
-10.844979 -9.944446 -39.738529
-11.768436 -9.863434 -40.758035
-11.357068 -11.647338 -41.771168
-10.927037 -13.420377 -43.038907
-13.996857 -10.568014 -43.881739
-13.287537 -11.674441 -43.859981
-10.284156 -12.182144 -40.304470
-11.608754 -12.622610 -41.974844
-11.676772 -11.286863 -40.603670
-9.658491 -16.715119 -43.117100
-12.876599 -9.935340 -40.046870
-12.876599 -9.935340 -40.046870
-23.326516 1.418965 -40.154552
-14.151827 -4.120364 -28.578403
-14.151827 -4.120364 -28.578403
-21.999146 -0.026519 -38.878950
-19.564607 -1.831854 -35.866486
-14.672500 -6.368118 -30.986159
-14.887529 -5.404915 -30.323543
-13.666003 -5.249623 -27.836213
-17.611589 -5.214035 -34.850303
-17.259795 -3.476361 -32.447865
-17.259795 -3.476361 -32.447865
-18.631267 -1.527805 -33.255662
-15.358322 -8.276257 -32.828048
-11.634497 -11.810478 -28.766304
-16.074476 -7.257203 -33.040985
-16.000831 -5.585610 -31.275906
-16.752635 -4.539991 -31.774023
-16.592003 -3.903106 -30.896027
-14.882225 -8.946280 -31.836441
-17.295465 -3.929849 -32.100434
-17.295465 -3.929849 -32.100434
-16.191573 -4.059110 -29.933951
-15.857553 -4.167722 -29.364591
-16.200908 -4.280070 -30.088658
-16.690815 -4.110396 -30.754025
-15.731723 -4.514149 -29.204625
-17.132672 -2.746992 -30.285227
-17.459031 -4.013980 -31.980188
-16.031201 -7.335508 -31.589653
-16.208654 -7.137159 -31.459060
-14.966078 -10.936949 -31.817120
-16.328565 -4.051177 -28.718143
-16.553946 -5.278878 -29.890999
-16.553946 -5.278878 -29.890999
-17.561511 -6.477599 -32.869034
-16.110290 -5.121678 -28.786427
-16.110290 -5.121678 -28.786427
-17.378111 -3.250715 -29.744011
-15.768461 -10.288383 -32.229400
-17.128772 -4.756684 -30.410727
-16.975741 -7.066840 -31.960567
-16.590362 -5.504947 -29.755284
-21.166843 -2.833730 -36.844211
-17.232694 -3.716974 -29.533941
-15.088808 -6.211448 -27.152997
-17.250744 -6.439260 -31.597567
-17.250744 -6.439260 -31.597567
-18.118427 -4.299462 -31.408111
-18.001503 -7.486463 -33.702282
-18.882796 -3.220598 -32.085557
-18.882796 -3.220598 -32.085557
-17.314151 -4.439672 -29.666928
-17.634507 -4.197047 -30.028443
-15.948921 -5.551049 -27.374574
-16.304946 -4.826507 -27.440112
-18.425670 -3.796929 -31.076393
-18.727072 -4.125000 -31.709596
-18.431875 -5.059983 -31.711686
-18.431875 -5.059983 -31.711686
-19.319852 -4.812023 -33.308488
-18.062575 -3.750571 -29.788194
-18.121810 -3.781332 -29.942695
-18.717679 -3.917637 -31.220507
-17.554645 -4.428957 -28.938784
-18.821170 -6.417023 -33.062054
-19.343125 -5.392949 -33.363401
-18.803455 -6.003358 -32.612868
-18.253486 -4.348565 -30.146298
-18.253486 -4.348565 -30.146298
-17.145568 -8.691107 -30.999517
-18.601763 -7.035567 -32.628069
-19.464416 -5.239795 -32.607800
-19.623310 -7.174994 -34.340243
-18.314914 -5.836935 -30.294069
-18.616298 -4.145028 -29.660466
-18.616298 -4.145028 -29.660466
-17.947296 -8.899339 -31.557825
-19.089977 -3.411550 -30.087101
-18.550443 -4.932699 -30.023162
-18.978967 -3.403905 -29.689441
-18.566979 -3.997622 -29.158105
-19.596274 -4.957950 -32.162086
-18.705932 -3.594315 -28.817569
-21.920413 -0.239252 -33.307951
-19.963246 -2.486710 -30.178086
-20.246783 -2.213257 -30.264081
-20.246783 -2.213257 -30.264081
-14.942084 -2.999389 -50.924989
-8.071737 -6.157697 -50.816910
-16.925009 -1.568997 -50.150655
-13.648453 0.406914 -45.402821
-15.431039 -2.867254 -50.455521
-15.421321 -3.215211 -50.640336
-15.421321 -3.215211 -50.640336
-10.935276 -1.493951 -45.311130
-11.687510 -1.664242 -45.486019
-11.103010 -1.765275 -45.174796
-11.089088 -1.561582 -44.764632
-9.606932 -0.562948 -42.535234
-10.104673 -0.346913 -42.586467
-9.911498 -0.632941 -42.626788
-11.654070 -1.940962 -45.003407
-11.862489 -1.697548 -44.796410
-11.412292 -0.794831 -43.297098
-11.323026 -0.928684 -43.286015
-15.904441 -3.221804 -48.874399
-17.413548 -2.542808 -49.086283
-12.436785 -1.530941 -44.157656
-16.823711 -3.513469 -49.727716
-17.054800 -3.217613 -49.462294
-17.274137 -2.975978 -49.302030
-17.402775 -2.966738 -49.348993
-12.421754 -2.257991 -44.708480
-11.941554 -2.892470 -45.103323
-11.681472 -2.374318 -44.284497
-15.754800 -3.027502 -48.118384
-12.350139 -1.641627 -43.882329
-16.869558 -4.430119 -50.526676
-12.820494 -2.132747 -44.648871
-12.129709 -1.519015 -43.349347
-17.888602 -2.956251 -49.448929
-17.798497 -2.838696 -49.224489
-16.920173 -4.350059 -50.304343
-12.657255 -2.132839 -44.326229
-17.498604 -2.981798 -49.075883
-17.498604 -2.981798 -49.075883
-12.344292 -3.010727 -44.901497
-13.108700 -6.447476 -49.505982
-12.056592 -2.001773 -43.118775
-17.324471 -3.850704 -49.302247
-17.324471 -3.850704 -49.302247
-12.822901 -2.756886 -44.326740
-12.272335 -2.116360 -42.910421
-12.272335 -2.116360 -42.910421
-11.959562 -2.569986 -42.945809
-10.583697 -3.910222 -43.011332
-15.435517 -6.507742 -50.082970
-10.364080 -3.733632 -42.517488
-13.835564 -2.448931 -43.544261
-13.708961 -2.901277 -43.421645
-12.804787 -4.617919 -43.883849
-18.360953 -1.612784 -45.288519
-14.008702 -2.669863 -42.201940
-16.456211 -1.989910 -43.449066
-17.598221 -5.566579 -48.130471
-14.544016 -3.833821 -43.138731
-14.733859 -3.450670 -42.898324
-14.102261 -3.691172 -42.486321
-13.571717 -3.709816 -41.803752
-14.730147 -3.805749 -42.996939
-13.830001 -3.573770 -41.492432
-14.000266 -4.803351 -42.990591
-8.319141 -7.705711 -39.837063
-16.343892 -7.316480 -47.820301
-13.614800 -4.574151 -41.799854
-14.179538 -4.828031 -42.636810
-19.384381 -3.820678 -46.978843
-12.916942 -9.697861 -46.080802
-15.479930 -4.462314 -43.168078
-17.499466 -6.051967 -46.972693
-15.306623 -5.091749 -43.205973
-15.043591 -7.551117 -45.197803
-15.472579 -7.039529 -45.052211
-16.252820 -4.180404 -42.688680
-14.827623 -6.050501 -42.532838
-14.992930 -6.135895 -42.343804
-14.992930 -6.135895 -42.343804
-19.546731 -4.754827 -46.315315
-14.403254 -7.948387 -43.174286
-18.850833 -2.754589 -43.278150
-16.377922 -6.709007 -43.963971
-10.928159 -14.443687 -44.676739
-14.407727 -9.567683 -43.927083
-17.369777 -5.586542 -43.574093
-14.856697 -9.847029 -44.384907
-16.224362 -7.224731 -43.505700
-6.889767 -23.578132 -46.838086
-19.710946 -4.778930 -44.306961
-18.635985 -7.460166 -45.427979
-17.225606 -4.994319 -36.556362
-17.508273 -2.721308 -34.874517
-17.262062 -4.553935 -35.702887
-16.798732 -2.298395 -32.733837
-16.744409 -5.376817 -35.183072
-16.744409 -5.376817 -35.183072
-16.581624 -3.466887 -33.151958
-17.012913 -5.244886 -35.153857
-17.062155 -2.922765 -33.155944
-18.051151 -1.995031 -33.999227
-16.868556 -5.815735 -34.887390
-18.288673 -3.361737 -35.303126
-18.260983 -1.312773 -33.477393
-16.891134 -5.621174 -34.549796
-17.688529 -2.863251 -33.500419
-16.827944 -5.330577 -33.926761
-17.819316 -3.450825 -34.046752
-18.525323 -3.647808 -35.317143
-17.665890 -1.901791 -32.388711
-17.995720 -1.243806 -32.421424
-17.566199 -2.193429 -32.423452
-17.838686 -1.620458 -32.355966
-17.724637 -1.420055 -31.767263
-17.518668 -5.042607 -34.183670
-17.450455 -4.941771 -33.956440
-17.450455 -4.941771 -33.956440
-17.457107 -2.694334 -32.079719
-18.056812 -1.513571 -32.176991
-18.253714 -3.023985 -33.638761
-18.253714 -3.023985 -33.638761
-17.440434 -6.920053 -35.166472
-16.839299 -6.327407 -33.501504
-16.839299 -6.327407 -33.501504
-18.020180 -3.380440 -33.326329
-15.968196 -8.589778 -33.420154
-17.453105 -5.222537 -33.413341
-17.632242 -5.026758 -33.580072
-18.072803 -3.424223 -32.956425
-17.330398 -7.175111 -34.462692
-18.282445 -2.693902 -32.656066
-17.668261 -5.646777 -33.745784
-18.150493 -2.271139 -32.034710
-17.805492 -6.865326 -34.820734
-18.543359 -1.350298 -31.970667
-18.281090 -4.751903 -34.043462
-18.402424 -2.653198 -32.652069
-18.409509 -2.058629 -32.051156
-19.024778 -2.357175 -32.971915
-19.012620 -2.392949 -32.534935
-18.596197 -1.708300 -31.183563
-18.845242 -2.330763 -31.809646
-18.668392 -2.965173 -31.781828
-19.040856 -2.800565 -32.364364
-18.904639 -4.908706 -33.509902
-18.336675 -6.408662 -33.269327
-18.715003 -5.424995 -33.238714
-18.393599 -7.162263 -33.539092
-18.630506 -6.309001 -33.387900
-18.832307 -6.599056 -33.510096
-17.582834 -9.760429 -32.969888
-19.016615 -4.178771 -31.957084
-19.394164 -2.443907 -31.521429
-19.599370 -2.906035 -32.171574
-19.674536 -1.960931 -31.654425
-19.780482 -1.720889 -31.578494
-19.248985 -3.848144 -31.663419
-19.660591 -1.712429 -31.022731
-19.246416 -8.174036 -34.211213
-19.246416 -8.174036 -34.211213
-18.631031 -8.447933 -32.920500
-13.389872 0.280771 -45.919579
-12.597418 1.448061 -43.923916
-18.783043 -1.277914 -50.719256
-18.783043 -1.277914 -50.719256
-13.308984 0.378918 -45.343707
-12.907412 1.892082 -43.362025
-12.072179 1.381146 -43.401628
-12.844650 1.407375 -43.678083
-12.495176 1.385109 -43.471457
-12.457929 1.505637 -43.190605
-12.457929 1.505637 -43.190605
-13.090258 0.696332 -44.394257
-13.090258 0.696332 -44.394257
-13.232825 0.944211 -43.992332
-12.588487 1.026693 -43.496189
-13.299530 0.317003 -44.667929
-10.448495 -0.392417 -43.405368
-11.586353 0.146942 -43.470967
-17.682809 -1.303156 -48.964997
-13.196927 0.001346 -44.513574
-12.505628 -0.537711 -44.442788
-20.004834 -1.033647 -49.729995
-14.286528 0.463200 -44.029140
-14.286528 0.463200 -44.029140
-17.282682 -1.202181 -47.828689
-14.441559 -0.962045 -45.401194
-13.171773 -0.888933 -44.115886
-14.938043 0.468741 -43.856511
-14.938043 0.468741 -43.856511
-14.835689 -0.734197 -44.876859
-14.589369 0.019324 -43.843420
-13.576493 -0.578511 -43.558374
-13.576493 -0.578511 -43.558374
-13.098369 -1.552371 -43.755359
-14.582851 -1.233140 -44.071728
-15.070584 -0.579987 -43.478679
-15.070584 -0.579987 -43.478679
-15.051386 -1.253792 -43.984356
-13.216576 -2.440930 -43.388407
-15.066914 -2.231078 -44.445180
-15.634384 -1.372885 -43.714695
-8.273115 -5.865144 -41.230782
-8.273115 -5.865144 -41.230782
-15.793366 -1.862037 -43.794323
-15.705482 -2.231113 -43.664978
-15.716590 -1.994984 -43.420574
-15.667632 -1.767387 -43.106127
-19.884274 -2.790552 -47.996792
-16.283406 -1.870986 -43.551549
-14.374790 -2.537704 -42.231668
-9.994867 -5.741032 -41.281985
-9.994867 -5.741032 -41.281985
-18.524895 -4.407750 -47.917823
-15.964842 -3.010659 -43.710688
-15.066413 -3.350262 -43.176581
-15.066413 -3.350262 -43.176581
-11.828989 -5.353356 -41.950871
-18.014718 -3.789363 -46.026482
-16.991409 -2.485837 -43.676180
-19.513527 -3.402020 -46.999196
-19.672365 -3.312067 -46.870113
-16.024518 -3.837518 -43.649883
-17.412142 -4.359246 -45.530247
-13.338650 -5.234949 -42.222829
-17.913353 -4.022786 -45.465804
-17.716688 -4.543137 -45.763048
-16.893900 -2.974277 -43.112537
-20.167656 -3.255735 -46.736483
-17.085044 -3.207717 -43.320794
-16.688516 -3.641939 -43.138230
-20.036173 -3.934335 -46.602470
-18.282449 -2.660902 -43.443949
-17.065853 -4.578720 -43.749646
-15.327808 -7.836502 -44.856228
-17.954789 -2.572467 -42.783844
-17.870073 -4.809683 -44.691476
-16.964679 -5.636851 -44.324344
-17.337903 -5.692865 -44.382279
-16.964624 -5.621918 -43.862669
-17.374547 -4.149053 -42.896341
-17.510218 -5.267882 -43.880869
-15.393435 -6.176691 -41.887578
-14.856630 -7.433521 -42.028416
-14.856630 -7.433521 -42.028416
-20.197817 -5.044203 -45.568219
-19.703902 -5.774585 -45.232208
-14.603716 -1.579894 -30.572727
-14.603716 -1.579894 -30.572727
-16.775519 -0.055021 -32.559812
-16.775519 -0.055021 -32.559812
-20.027260 -1.369583 -38.336351
-16.733231 -3.737320 -35.286000
-15.586090 -4.097506 -33.561377
-15.777663 -3.370338 -33.241429
-15.255273 -3.632298 -32.653145
-17.852755 -3.259410 -36.185729
-17.852755 -3.259410 -36.185729
-14.329656 -6.273686 -33.021278
-16.147466 -1.054802 -31.789806
-15.129703 -3.127556 -31.740973
-16.948738 -1.884649 -33.260703
-15.033593 -5.330174 -32.751344
-10.951131 -6.615574 -27.349880
-17.930641 -3.230284 -35.550663
-17.930641 -3.230284 -35.550663
-14.385776 -3.267079 -30.007880
-15.632533 -2.376938 -31.260200
-15.709967 -3.336122 -32.022477
-14.760224 -6.911879 -32.691517
-18.298818 -2.925164 -35.315501
-16.477377 -2.269659 -31.902616
-15.864113 -3.185112 -31.582233
-15.489400 -2.373516 -30.313442
-15.973043 -1.606417 -30.309245
-17.126005 -4.097335 -33.879493
-12.557853 -5.799899 -27.579441
-18.385377 -2.922638 -34.784177
-17.813960 -0.636874 -32.088466
-16.315966 -5.101413 -32.735335
-16.784728 -4.886392 -33.045123
-16.784728 -4.886392 -33.045123
-16.551724 -4.889417 -32.605908
-16.326400 -2.690088 -30.683907
-15.328336 -4.466793 -30.225299
-20.409696 -1.608097 -36.462300
-16.242460 -3.460236 -30.858077
-16.242460 -3.460236 -30.858077
-16.286985 -3.204568 -30.723167
-14.596895 -5.816362 -29.687490
-15.891317 -3.106239 -29.967549
-15.453336 -4.305725 -29.898028
-15.819660 -3.194538 -29.562185
-15.819660 -3.194538 -29.562185
-21.978822 -0.811335 -37.954198
-21.978822 -0.811335 -37.954198
-16.518457 -3.953304 -30.812941
-12.738687 -7.296224 -26.580592
-12.738687 -7.296224 -26.580592
-17.720569 -1.618208 -30.881559
-16.847420 -2.018566 -29.453891
-16.357180 -4.080632 -29.481404
-16.157577 -4.571005 -29.397885
-10.093360 -14.928737 -24.783225
-15.696643 -4.839973 -28.358824
-24.569811 2.426037 -39.370119
-16.979584 -4.855283 -30.050063
-16.230356 -4.957019 -28.567678
-16.230356 -4.957019 -28.567678
-10.635731 -12.534736 -22.619421
-17.350719 -3.335723 -29.231723
-17.054062 -4.474715 -29.363594
-19.026200 -1.422926 -31.077524
-17.890461 -3.437013 -30.019242
-16.768850 -4.318180 -28.325296
-24.695082 1.447693 -39.593552
-15.944151 -5.725442 -27.530440
-16.081672 -6.008467 -27.936398
-19.137065 -0.996414 -30.589622
-19.627608 -0.808243 -30.332728
-8.951198 -8.155551 -57.759633
-9.051602 -8.074971 -57.700565
-16.539536 0.339813 -50.312586
-20.452004 -0.008571 -52.365500
-17.077731 0.848080 -49.248478
-15.921206 2.652542 -46.205495
-15.921206 2.652542 -46.205495
-16.570964 3.770651 -45.279232
-15.245978 3.286470 -44.985099
-15.381077 1.525582 -46.989331
-15.952859 2.060273 -46.633392
-16.132006 2.756919 -45.913364
-16.132006 2.756919 -45.913364
-15.472868 3.562797 -44.598085
-15.173562 3.311825 -44.675891
-15.401626 3.130674 -44.876913
-15.209566 3.164073 -44.712465
-15.163472 3.272905 -44.466506
-15.163472 3.272905 -44.466506
-15.710566 2.526888 -45.489960
-15.710566 2.526888 -45.489960
-16.309759 1.885135 -46.496540
-19.734879 0.744665 -49.730664
-16.285760 1.988097 -46.315657
-15.257147 2.465906 -45.136626
-16.085007 1.762471 -45.786777
-20.801770 0.701778 -49.780029
-16.114600 1.142567 -46.251114
-16.739538 1.220870 -46.522668
-21.086158 0.102629 -50.428079
-21.195894 0.824326 -49.633791
-21.250844 0.320388 -50.188848
-16.550921 1.544587 -45.795989
-21.107109 0.874060 -49.445694
-16.491933 0.786181 -46.379404
-20.032445 0.324812 -49.118565
-16.721303 1.501624 -45.621863
-16.950751 1.435543 -45.589511
-20.862349 0.061529 -49.712788
-16.651762 0.870554 -45.894454
-16.548053 1.667517 -44.753473
-16.548053 1.667517 -44.753473
-16.187731 1.260802 -44.808126
-15.038381 0.144063 -44.907338
-20.512675 -0.891287 -49.888227
-21.567957 0.224355 -49.352987
-17.617786 0.484605 -44.804772
-19.488543 0.108071 -46.587389
-16.616111 0.344601 -43.959860
-17.283043 0.582145 -44.265058
-16.986543 0.202966 -44.149839
-10.644931 -3.742251 -42.733759
-10.644931 -3.742251 -42.733759
-17.696272 -0.267383 -44.762179
-17.672019 0.174114 -44.260078
-21.018535 -1.474094 -48.728578
-17.819193 -0.261085 -44.623554
-11.661183 -3.950488 -42.151245
-11.661183 -3.950488 -42.151245
-16.920379 -1.436458 -44.318259
-13.836165 -3.317417 -43.290200
-17.176370 -1.291103 -44.318424
-18.837100 -0.530725 -44.722905
-18.548498 -2.992214 -46.461827
-17.874990 -1.753840 -44.152495
-20.564265 -2.782316 -47.593131
-13.770550 -5.190556 -43.025314
-18.160197 -1.940760 -44.216160
-18.819904 -1.878438 -44.408837
-19.025872 -1.670126 -44.416524
-16.888784 -6.721235 -46.766487
-17.606956 -3.799900 -44.730711
-18.531096 -3.756043 -45.624748
-18.867206 -3.543486 -45.635494
-18.579899 -3.700654 -45.470966
-18.404417 -3.847060 -45.302848
-14.827671 -5.511656 -42.666558
-18.297498 -2.561299 -43.608584
-18.668651 -2.536789 -43.955030
-18.154943 0.446802 -40.728899
-17.943594 -3.545542 -43.975495
-19.130335 -3.257587 -44.921526
-18.692280 -4.701103 -45.697162
-20.009328 -4.952208 -46.851308
-16.743101 -5.121237 -43.300207
-20.597235 -4.411571 -46.277502
-19.559678 -1.214196 -38.897601
-15.522595 -0.062510 -32.354801
-18.982238 2.198394 -35.307354
-18.982238 2.198394 -35.307354
-19.744230 2.696471 -35.960140
-19.744230 2.696471 -35.960140
-19.537944 -1.490694 -38.720450
-19.625592 -0.729046 -38.228103
-19.341392 1.465342 -36.007321
-19.661141 0.659538 -37.033046
-19.984866 1.091749 -37.161581
-19.559781 -1.014242 -38.069397
-19.671081 0.868189 -36.748508
-19.446018 2.063460 -35.539611
-19.677712 1.284437 -36.374317
-19.917816 -0.780841 -38.129526
-19.918679 0.277533 -37.253992
-20.514446 0.549942 -37.753948
-20.514446 0.549942 -37.753948
-20.514446 0.549942 -37.753948
-20.483354 -0.327777 -38.137201
-20.542784 1.809209 -36.379687
-20.282422 1.817718 -35.972667
-19.465947 1.495860 -34.965680
-20.871137 0.256917 -37.855168
-19.646663 1.195166 -35.387828
-19.646663 1.195166 -35.387828
-20.112585 2.268707 -35.225270
-20.187409 2.091105 -35.380813
-20.526700 1.187332 -36.387846
-20.508084 1.687052 -36.007061
-20.793544 0.457903 -36.941821
-21.678050 -0.249647 -38.720341
-21.073018 0.213081 -37.429345
-20.721211 1.773879 -35.801650
-21.269426 -0.970230 -38.370537
-20.781386 0.620740 -36.581549
-20.781386 0.620740 -36.581549
-22.049138 0.676885 -38.417003
-20.926040 1.473398 -36.170571
-21.652208 0.351388 -37.991872
-21.652208 0.351388 -37.991872
-21.652208 0.351388 -37.991872
-20.705035 1.753160 -35.610852
-20.705035 1.753160 -35.610852
-21.848230 0.694699 -37.966114
-21.887777 0.468656 -38.036377
-20.572251 1.356946 -35.344024
-21.528383 0.621468 -37.296544
-21.095153 1.337220 -35.952026
-21.095153 1.337220 -35.952026
-20.939294 1.558208 -35.442519
-21.366482 2.231117 -35.590341
-28.914723 8.101544 -44.054386
-21.434986 -0.259334 -37.059891
-20.943591 1.604135 -35.107715
-21.284960 0.421493 -36.237196
-21.204326 1.845139 -35.175433
-21.980531 1.704746 -36.478736
-21.234307 1.117318 -35.591583
-21.578206 1.348954 -35.964131
-21.976970 0.243644 -37.262090
-21.976970 0.243644 -37.262090
-22.058469 -0.239014 -37.577592
-21.585316 -0.410420 -36.845150
-21.703617 2.493051 -35.172728
-22.961678 0.682128 -38.273866
-21.402432 0.892250 -35.288373
-21.570574 0.183464 -35.864943
-22.573685 0.722364 -37.252974
-21.455061 1.570085 -34.670820
-23.684766 0.136379 -39.061020
-21.744162 2.108124 -34.530642
-22.239369 1.512366 -35.618356
-22.670711 2.772488 -35.316029
-22.670711 2.772488 -35.316029
-13.895209 -1.136324 -52.436178
-14.835345 -0.051518 -51.151992
-15.237302 0.023965 -50.893006
-13.715084 1.732146 -48.024471
-13.828754 2.211377 -47.367261
-13.828754 2.211377 -47.367261
-13.197854 2.606064 -46.618750
-13.197854 2.606064 -46.618750
-13.490919 3.081041 -46.081964
-13.772572 1.214213 -48.211603
-17.543108 1.695948 -49.528323
-14.164672 1.660937 -47.857527
-13.266061 3.304559 -45.507175
-13.799817 1.708303 -47.495423
-13.345121 3.187789 -45.592550
-14.116889 2.146966 -47.065470
-14.116889 2.146966 -47.065470
-14.116889 2.146966 -47.065470
-13.434132 2.905446 -45.820631
-13.327274 3.007011 -45.644566
-13.384029 3.172692 -45.364614
-13.384029 3.172692 -45.364614
-14.450250 1.663125 -47.393428
-14.067014 1.168033 -47.702340
-13.928436 2.875979 -45.684263
-14.109838 1.844044 -46.783918
-16.031454 1.774238 -47.868782
-20.419994 0.974826 -50.788316
-13.710570 0.990178 -46.868719
-14.619195 0.407069 -47.718706
-20.473224 -0.323964 -51.869148
-20.738467 0.822545 -50.650573
-19.230814 2.337773 -48.103419
-15.374567 1.256445 -46.918002
-14.570224 0.043139 -47.531614
-15.246677 1.166335 -46.604249
-14.819190 1.159995 -46.184600
-20.419322 -0.130794 -50.969215
-20.419322 -0.130794 -50.969215
-15.479793 0.644965 -46.895375
-14.167966 -0.082504 -46.650713
-14.167966 -0.082504 -46.650713
-14.521747 1.069040 -45.623391
-18.805780 -2.560339 -51.801453
-18.805780 -2.560339 -51.801453
-12.081967 -1.168238 -45.832297
-20.472788 -0.747485 -50.916446
-13.732479 -0.419860 -45.413590
-15.921006 -0.047609 -46.177846
-13.816557 -0.690270 -45.176944
-19.036807 -3.065893 -51.063786
-16.871470 1.053591 -45.350726
-16.415784 0.143881 -45.656786
-17.777468 -1.001856 -47.714859
-15.192479 -1.422928 -45.696847
-21.049556 -1.121933 -49.630703
-16.089205 -1.025693 -45.587922
-16.331704 -0.575545 -45.341401
-15.779568 -0.726940 -44.989819
-16.661882 -0.387334 -45.351815
-15.907271 -1.298068 -45.403857
-9.301911 -4.883236 -43.395583
-20.491351 -1.846544 -49.397768
-21.718852 -0.360918 -48.924744
-20.902057 -1.460609 -49.099896
-13.956843 -3.400360 -45.036796
-13.956843 -3.400360 -45.036796
-8.472411 -7.085650 -43.646231
-16.531943 -7.243627 -50.275817
-17.378351 -1.354934 -45.496757
-20.699580 -1.737003 -48.670968
-20.487765 -2.313811 -48.943239
-17.341523 -3.976370 -47.464312
-13.239372 -4.439844 -44.148845
-17.034814 -2.016216 -44.907187
-17.471082 -4.912675 -47.536989
-19.488587 -4.099146 -48.620811
-16.973791 -2.610401 -44.940589
-20.458754 -3.396628 -48.701967
-16.412772 -7.082757 -47.707516
-16.755018 -5.480266 -46.532597
-16.883467 -5.550411 -46.552292
-16.471959 -5.794690 -46.353505
-16.437676 -5.762815 -46.145828
-16.089943 -4.365422 -44.134218
-9.542110 -5.579624 -38.534977
-13.166867 -8.601888 -43.615956
-20.268082 -4.908207 -47.308969
-17.631434 -2.483323 -38.465807
-18.530872 2.775439 -35.625454
-18.530872 2.775439 -35.625454
-18.818678 0.285073 -37.419838
-18.757489 1.868558 -36.202190
-18.605429 -1.260939 -38.104855
-19.203333 1.022982 -37.310929
-19.170406 1.696076 -36.625308
-18.479741 -1.510334 -37.825627
-19.616844 1.485595 -37.131396
-19.445334 1.151643 -36.920642
-19.762961 0.066279 -38.019268
-19.964870 2.120186 -36.957081
-19.254948 2.155707 -35.961938
-19.674067 1.584574 -36.871270
-19.032972 -1.100600 -37.751858
-19.837392 1.772401 -36.856362
-20.044486 2.654538 -36.301256
-19.986242 2.424249 -36.358308
-19.929227 2.927651 -35.946698
-20.222877 2.952233 -36.340649
-22.157026 1.242234 -39.972914
-22.157026 1.242234 -39.972914
-20.309783 1.758070 -37.047642
-20.107597 3.137171 -35.872654
-19.382221 1.630337 -35.644489
-20.232992 0.655244 -37.407442
-20.149819 2.825655 -35.906007
-20.031882 1.125113 -36.782214
-20.031882 1.125113 -36.782214
-20.729216 2.777772 -36.718505
-19.883982 0.270957 -36.989575
-20.453117 0.524637 -37.579990
-20.252780 0.692511 -37.096785
-20.128622 -1.623024 -38.307636
-20.462429 0.530975 -37.355285
-20.462429 0.530975 -37.355285
-20.462429 0.530975 -37.355285
-18.920000 -0.690802 -35.848732
-20.403493 1.325532 -36.696221
-20.502252 1.129305 -36.935578
-20.529825 0.216884 -37.501217
-20.564683 0.936853 -37.063858
-20.381656 1.802472 -36.286192
-20.381656 1.802472 -36.286192
-20.485077 -0.212282 -37.639340
-19.991807 0.414376 -36.515375
-20.669814 2.561519 -36.206361
-20.669814 2.561519 -36.206361
-20.807609 3.189863 -35.950048
-21.058587 0.565110 -37.877517
-20.424492 1.786664 -36.211491
-20.911090 -0.310435 -38.177612
-20.828181 1.008421 -37.243462
-20.778293 1.333938 -36.968870
-21.207895 2.225211 -36.985981
-20.956917 0.165144 -37.853685
-20.360191 2.306573 -35.657675
-20.876086 -0.877876 -38.249473
-20.837913 -1.192699 -38.373409
-20.995697 0.472168 -37.579174
-21.181276 1.999613 -36.794289
-21.330406 1.675756 -37.186048
-20.421931 1.552804 -35.904722
-20.421931 1.552804 -35.904722
-20.573508 1.827461 -35.809935
-20.556988 2.416389 -35.362113
-21.126950 1.733502 -36.509911
-21.431078 2.876916 -36.231648
-21.002568 -0.120615 -36.929900
-21.523953 2.895937 -36.007594
-20.978578 -0.832285 -37.162513
-21.237089 -0.229542 -37.171121
-21.620058 0.475434 -37.361604
-21.183108 -0.496747 -37.197412
-21.468446 2.766811 -35.836409
-21.550334 0.439740 -37.194081
-21.786891 1.721035 -36.579566
-21.431447 -1.241141 -37.563693
-21.647825 0.397590 -36.879559
-22.068972 1.492116 -36.942275
-22.875109 1.128142 -38.327585
-21.602763 2.389543 -35.604309
-20.841346 -2.044998 -36.684682
-22.025309 2.083265 -36.314199
-22.094306 1.247590 -36.887661
-21.330899 2.304450 -35.105156
-21.868540 0.201429 -37.044766
-21.819172 2.902895 -35.533612
-21.819172 2.902895 -35.533612
-21.955406 2.250339 -36.063214
-21.480631 -2.438525 -37.597313
-21.941958 3.155923 -35.359206
-21.624558 -1.941734 -37.050060
-22.000288 3.021707 -35.051915
-22.462322 3.436095 -35.343367
-13.993202 -0.332315 -52.106315
-11.838161 1.312895 -48.766046
-12.051126 2.703456 -47.164340
-12.442871 1.387373 -48.552421
-12.478337 1.315769 -48.534917
-18.025514 0.447559 -52.080033
-17.732570 0.226891 -52.110741
-11.833431 3.371764 -45.934969
-12.131043 1.402868 -48.143022
-12.122196 3.333442 -46.033541
-11.362865 2.336601 -46.573016
-18.469060 3.671718 -48.561401
-19.007347 0.811017 -51.805329
-13.188700 1.239484 -48.280301
-19.264914 0.951759 -51.644483
-13.386051 1.508812 -48.041950
-11.506728 2.397097 -46.136980
-12.777975 1.677850 -47.501807
-11.091051 1.586632 -46.617646
-12.594960 1.645375 -47.320957
-15.283551 1.884151 -48.457785
-12.305719 2.166866 -46.585490
-11.338322 0.217632 -47.476813
-20.772505 0.273345 -52.380428
-12.697937 0.139079 -47.972446
-12.777682 1.328690 -46.556312
-12.777682 1.328690 -46.556312
-19.263637 2.908431 -48.604529
-14.021495 0.991071 -47.477719
-13.644252 0.476041 -47.729273
-19.161775 0.198048 -51.049547
-13.471367 0.645873 -47.119460
-13.762422 1.452976 -46.287362
-14.650685 0.640013 -47.398796
-13.700103 0.165450 -47.102384
-13.387707 0.992208 -46.030623
-13.387707 0.992208 -46.030623
-8.961538 -2.654336 -46.243793
-6.270656 -4.714332 -45.140430
-14.141814 -0.393147 -46.376745
-15.026734 0.314954 -45.957785
-15.451386 -0.045985 -46.038546
-13.858471 -0.427193 -44.979640
-15.394155 -1.114839 -45.952527
-15.616896 -0.628742 -45.681274
-14.130700 -1.479241 -45.264432
-15.911657 -0.793474 -45.786128
-3.918437 -8.801721 -42.914343
5.209645 -17.616345 -42.580070
-15.593992 -5.094208 -48.019785
-17.148410 -1.139471 -45.855151
-15.244950 -3.383247 -45.839188
-21.509062 -1.335105 -48.808999
-16.268874 -2.893191 -45.239010
-21.651990 -1.578070 -48.846151
-14.907416 -7.091336 -47.205707
-20.925729 -2.453019 -48.782540
-14.652476 -6.006265 -44.666207
-13.077414 -9.733372 -45.863693
-5.103195 -15.888383 -42.368581
-13.173720 -6.475935 -36.019209
-13.625809 -6.405783 -36.016820
-13.625809 -6.405783 -36.016820
-15.604296 -3.366937 -36.395658
-18.142402 2.122254 -35.731204
-20.293066 3.756606 -36.902647
-19.087800 -0.502591 -37.820541
-19.919874 2.267629 -37.057503
-19.616724 2.098147 -36.627769
-20.589147 3.766270 -36.780768
-18.354956 -2.354393 -37.481350
-20.436988 3.461243 -36.740794
-19.619959 0.587070 -37.318534
-20.441505 3.670166 -36.530243
-20.569045 3.609906 -36.752906
-20.589625 3.460333 -36.858090
-20.905841 4.426148 -36.579108
-20.563492 2.208937 -37.368697
-4.280764 -19.353328 -27.806518
-20.576656 1.217346 -37.680969
-19.363675 -2.053796 -37.759190
-19.444613 -0.129641 -36.696369
-21.035530 2.523165 -37.236368
-20.090446 -0.101211 -37.303110
-21.599911 3.995124 -37.053617
-21.599911 3.995124 -37.053617
-20.748022 0.781118 -37.614342
-21.289295 3.187600 -36.977178
-21.256164 3.728226 -36.525648
-18.430806 -3.295437 -36.336383
-21.945514 2.987295 -37.606789
-21.832316 4.493078 -36.497621
-21.996195 3.946049 -37.028900
-21.797547 4.119058 -36.572559
-22.229628 3.455936 -37.467636
-21.288369 2.491715 -36.607936
-22.006170 3.702299 -36.823350
-22.006170 3.702299 -36.823350
-22.236150 3.622239 -37.099635
-22.125808 3.587587 -36.933058
-21.879659 3.166605 -36.766896
-20.976096 0.364134 -36.837960
-22.275034 4.209006 -36.731660
-20.599957 -0.807503 -36.757793
-22.488158 3.851548 -37.175731
-21.103674 0.123417 -36.986297
-20.780166 -0.457908 -36.786329
-21.731128 0.982801 -37.466630
-22.195158 3.611912 -36.791274
-22.195158 3.611912 -36.791274
-22.058192 4.416469 -36.130565
-22.327940 4.563768 -36.381647
-22.138729 1.474461 -37.266800
-12.499699 -14.070133 -30.039108
-20.586695 -1.178437 -36.052394
-22.902601 3.147373 -37.510429
-23.508182 3.520403 -38.261006
-22.397107 3.771083 -36.391486
-22.328508 3.105500 -36.570322
-22.552579 4.063020 -36.379749
-22.736562 3.616946 -36.813837
-22.498080 2.989739 -36.592626
-23.009759 4.747670 -36.498501
-18.022575 -7.418970 -34.162401
-26.453523 6.798902 -40.637095
-21.013514 6.859022 -47.949466
-21.427700 7.973738 -46.881249
-23.503731 5.538341 -50.189439
-21.176572 7.610396 -46.914420
-20.702706 7.866622 -46.364245
-20.871481 7.838230 -46.417773
-20.795754 7.598877 -46.560020
-20.781560 7.783592 -46.268371
-20.781560 7.783592 -46.268371
-20.758880 7.003223 -47.017450
-21.430697 6.606259 -47.713860
-21.382659 6.670351 -47.591111
-20.562834 7.333625 -46.471788
-22.075392 6.632434 -47.911779
-20.843091 7.106414 -46.739307
-23.787880 5.406858 -49.914711
-21.138837 6.473171 -47.195948
-24.906207 5.051192 -50.641514
-25.152991 5.365127 -50.379148
-21.508590 5.960322 -47.746624
-24.861590 5.623479 -49.929772
-23.610491 6.616551 -48.206987
-21.132565 6.452167 -46.829757
-21.700332 6.185451 -47.401681
-24.079153 5.228129 -49.648256
-25.069883 5.394727 -49.916071
-21.789384 6.752767 -46.570149
-21.970636 6.336076 -47.035784
-22.086671 6.135129 -47.221707
-21.805135 6.042668 -47.028582
-21.805135 6.042668 -47.028582
-21.461154 6.424006 -46.419861
-20.848008 5.568756 -46.530540
-22.205428 5.825931 -46.612673
-20.560143 5.246898 -46.025461
-20.560143 5.246898 -46.025461
-22.836525 5.638394 -46.894728
-22.681982 4.284991 -47.864153
-22.067504 5.822436 -45.829965
-22.447129 5.258400 -46.457009
-25.039474 4.136031 -49.232147
-22.757763 5.297845 -46.361401
-22.862553 5.549568 -46.210792
-22.416916 5.371408 -45.988172
-23.306981 5.688271 -46.286186
-19.895463 3.732658 -45.061495
-25.183615 4.294625 -48.758927
-19.122119 3.174265 -44.643391
-20.374976 3.460680 -45.342314
-22.370989 1.995606 -48.070817
-23.318721 4.877252 -46.318636
-23.591046 3.497023 -47.502304
-23.256592 4.539567 -46.316400
-22.439943 1.559520 -47.790785
-23.266800 4.598062 -45.937541
-23.266800 4.598062 -45.937541
-24.006404 3.316597 -47.505646
-23.520604 4.517602 -45.975555
-24.930950 3.128185 -48.266072
-23.253168 4.123617 -45.813619
-23.219703 3.786987 -46.031411
-23.623078 2.317930 -47.550727
-23.438474 4.045813 -45.945664
-23.579999 2.988466 -46.794398
-23.468166 2.910071 -46.686727
-23.572276 3.064414 -46.383359
-23.540512 3.764528 -45.738272
-23.604270 3.826169 -45.742454
-22.944943 2.963564 -45.732052
-23.742342 2.382280 -46.931484
-24.410186 5.150175 -42.313760
-24.485239 5.064229 -42.258694
-24.485239 5.064229 -42.258694
-24.323574 5.634187 -41.657816
-23.647687 7.362757 -39.677600
-23.821510 7.460113 -39.820551
-24.424214 5.473683 -41.853024
-24.038714 6.929376 -40.247284
-24.264461 6.781734 -40.497454
-24.614960 5.445703 -41.782577
-24.272949 6.635340 -40.455911
-24.825759 5.473906 -41.884354
-24.631712 5.854367 -41.324936
-24.375293 6.836450 -40.265660
-24.801819 6.084172 -41.274550
-24.647335 6.629748 -40.670413
-24.963658 5.820540 -41.582446
-24.963658 5.820540 -41.582446
-25.005898 5.979017 -41.532025
-24.327630 6.734308 -40.020428
-24.927641 6.011629 -41.203877
-24.695157 7.395286 -40.053185
-24.682093 7.088932 -40.196053
-24.682093 7.088932 -40.196053
-24.949912 7.329518 -40.386420
-25.294723 6.051320 -41.569306
-24.968413 5.943563 -41.141064
-24.855558 6.710248 -40.481205
-24.850100 7.087678 -40.240410
-24.670303 7.364393 -39.812281
-25.441344 5.187831 -42.131983
-25.385725 5.886875 -41.583758
-25.202265 6.089094 -41.181381
-25.449563 5.330195 -41.904178
-25.591133 5.376368 -42.053949
-25.302609 6.344420 -41.091022
-25.325369 6.072753 -41.236437
-25.178310 6.065333 -41.014772
-25.178310 6.065333 -41.014772
-25.101127 7.231802 -40.191217
-25.131955 6.583808 -40.583647
-25.176165 6.435748 -40.726768
-24.991975 7.264747 -39.982109
-25.200991 6.976937 -40.394557
-25.205743 6.622268 -40.582090
-25.761934 5.409881 -42.053598
-25.087879 7.223428 -40.063105
-25.448552 5.962736 -41.263245
-24.968469 7.492417 -39.691418
-25.119567 6.870847 -40.248253
-25.119567 6.870847 -40.248253
-25.678680 5.407192 -41.767504
-25.720227 5.199886 -41.936052
-25.846960 5.464163 -41.802399
-25.161415 7.517972 -39.573692
-26.024374 5.497763 -41.667223
-25.416259 7.165330 -39.848248
-25.557517 6.880631 -40.132249
-25.704073 6.665401 -40.458261
-25.946578 6.103182 -41.115575
-25.582145 6.836585 -40.167968
-25.384870 7.319605 -39.591753
-26.161451 5.921276 -41.455281
-26.096952 6.133783 -41.217356
-26.330190 5.708107 -41.678377
-26.333547 5.586453 -41.511581
-26.156573 6.213691 -40.901858
-25.879084 6.323667 -40.365834
-26.415602 5.705332 -41.454165
-25.995289 7.366386 -39.985285
-25.995289 7.366386 -39.985285
-25.916963 7.508699 -39.677077
-26.014256 7.068613 -40.035152
-26.729347 5.365301 -41.940462
-26.981548 5.533243 -42.131766
-23.347014 8.905307 -48.647786
-23.210228 9.582055 -47.832655
-23.274472 9.366121 -47.995143
-23.220098 9.582000 -47.669811
-23.612938 8.871723 -48.509873
-23.464959 8.902160 -48.364061
-23.086217 9.702581 -47.387154
-23.191543 9.666776 -47.425648
-24.888159 9.017766 -48.790847
-23.243562 9.519170 -47.540046
-23.243562 9.519170 -47.540046
-23.220552 9.585074 -47.446379
-23.174321 9.645507 -47.308875
-23.354694 9.106600 -47.888489
-23.354694 9.106600 -47.888489
-23.366938 9.422752 -47.560705
-23.628679 8.722159 -48.352747
-23.359036 9.230260 -47.673316
-23.406564 9.280834 -47.640630
-23.367194 9.452146 -47.445875
-23.503659 8.808966 -47.910684
-26.304328 7.116715 -50.868790
-23.965212 8.285695 -48.433654
-25.243524 8.539699 -48.824040
-23.690420 8.701823 -47.879817
-23.645167 8.829209 -47.649577
-23.897284 8.470107 -48.077804
-23.481572 8.585736 -47.740115
-23.748734 8.695771 -47.534843
-24.009188 8.667488 -47.675511
-24.105690 8.243740 -48.042594
-23.975624 8.235810 -47.884047
-23.975624 8.235810 -47.884047
-23.730191 8.562849 -47.400011
-23.345469 7.944856 -47.506252
-25.182263 6.581485 -49.434780
-24.644748 6.777657 -48.537400
-24.431920 7.895651 -47.377743
-24.386947 7.511976 -47.505563
-27.219646 8.468320 -48.583059
-26.139014 6.154204 -49.744993
-26.234372 6.198266 -49.723264
-22.071860 6.657960 -46.427020
-22.071860 6.657960 -46.427020
-24.539531 7.503172 -47.321010
-24.572089 7.674561 -47.192242
-24.747371 7.632381 -47.238700
-23.152673 6.932144 -46.420889
-24.550312 7.182336 -47.078195
-23.510948 6.731894 -46.603842
-24.581073 6.746096 -47.362622
-24.350863 4.867752 -48.720241
-24.971677 7.138778 -47.263132
-24.956260 6.996083 -47.242536
-24.150527 6.716210 -46.673019
-24.928952 6.912877 -46.947110
-24.928952 6.912877 -46.947110
-25.615266 5.870260 -48.193442
-26.412538 5.813355 -48.887684
-25.086934 6.800179 -46.972472
-26.352008 5.675141 -48.810906
-25.032715 6.393541 -47.042299
-25.032715 6.393541 -47.042299
-25.535893 5.734651 -47.924438
-25.346666 5.110360 -48.235224
-24.598472 6.255860 -46.650727
-25.454514 5.835049 -47.615071
-25.188148 5.472823 -47.628842
-25.295121 5.714888 -47.532225
-25.169474 6.492030 -46.794346
-25.169474 6.492030 -46.794346
-25.169474 6.492030 -46.794346
-24.988703 6.149868 -46.860500
-25.084639 6.163928 -46.769007
-25.487784 5.248974 -47.725173
-25.287724 5.601617 -47.278438
-26.244096 4.788490 -48.177879
-24.939013 9.148858 -41.738517
-24.939013 9.148858 -41.738517
-25.644203 7.764157 -43.396735
-25.693346 8.182662 -43.086463
-25.367731 8.179765 -42.680383
-25.795165 7.582200 -43.528059
-25.795165 7.582200 -43.528059
-25.819853 7.891089 -43.298271
-25.484377 8.664775 -42.400344
-25.484925 8.032123 -42.656677
-25.474261 8.526400 -42.357965
-25.873521 8.077118 -43.051057
-25.374493 8.962728 -41.913624
-25.645430 8.370506 -42.555269
-25.333623 8.577683 -42.048125
-25.523120 8.879038 -42.070987
-25.907313 7.978378 -42.995444
-26.124121 7.626025 -43.445694
-26.063599 7.828396 -43.255455
-26.063599 7.828396 -43.255455
-26.161326 7.944895 -43.230167
-25.624560 8.846515 -42.016086
-25.664641 8.734288 -42.118822
-25.728864 9.114128 -41.938811
-25.858468 8.989386 -42.135348
-26.132942 7.979891 -43.003090
-25.682322 9.261687 -41.721293
-26.126661 7.998701 -42.923997
-25.902991 8.552085 -42.312759
-25.902991 8.552085 -42.312759
-25.833783 8.829045 -42.061592
-26.293722 7.972255 -43.104536
-26.293722 7.972255 -43.104536
-26.038316 8.415746 -42.516250
-26.610013 7.435452 -43.766122
-26.173965 7.817244 -42.985901
-25.975714 8.968151 -42.030471
-26.286014 7.979597 -42.897335
-26.275106 8.087755 -42.804304
-26.275106 8.087755 -42.804304
-25.971810 8.901777 -41.956616
-25.971810 8.901777 -41.956616
-26.064361 8.606386 -42.217680
-26.504636 7.682482 -43.276802
-26.162043 8.305949 -42.488133
-26.162043 8.305949 -42.488133
-25.955126 8.992616 -41.855089
-26.407806 7.723084 -43.095155
-26.068560 8.684142 -42.126078
-25.984629 8.913416 -41.867658
-26.320838 8.205119 -42.619228
-25.828382 8.656660 -41.659301
-26.522442 7.318240 -43.270260
-26.521926 8.064310 -42.813962
-26.277941 8.701603 -42.091027
-26.277941 8.701603 -42.091027
-26.347058 8.845288 -42.032427
-26.274043 8.924276 -41.867416
-26.138614 9.028724 -41.602734
-26.203695 9.256254 -41.512972
-26.413708 8.754843 -41.903745
-26.553135 8.461641 -42.207909
-26.998034 7.849696 -43.052940
-26.998034 7.849696 -43.052940
-26.820747 7.824971 -42.806845
-26.798622 8.118798 -42.627834
-26.647988 8.481904 -42.238759
-26.984883 8.079302 -42.896841
-26.458624 8.780042 -41.818976
-26.306594 8.917033 -41.501353
-27.020937 7.777833 -42.999297
-27.020937 7.777833 -42.999297
-27.054295 7.765443 -42.944682
-26.771325 8.547957 -42.176291
-26.679734 8.753510 -41.893863
-27.358409 7.376022 -43.462482
-27.008408 8.125797 -42.618180
-27.163170 7.909768 -42.888329
-26.990608 8.447956 -42.397196
-26.671492 8.684319 -41.805081
-27.230642 8.057222 -42.886973
-26.814042 9.078155 -41.820957
-26.814042 9.078155 -41.820957
-26.751056 8.684399 -41.895395
-26.699010 8.973061 -41.652789
-26.572495 9.073007 -41.392511
-26.806767 8.810777 -41.842443
-26.637787 8.957981 -41.506441
-27.450376 7.311030 -43.404624
-26.781806 8.917489 -41.714858
-26.875111 8.559677 -41.993435
-26.785047 8.713993 -41.773772
-26.641550 9.225337 -41.306324
-26.871199 8.767433 -41.801107
-26.829035 9.306839 -41.300316
-26.877248 9.336105 -41.197699
-23.812694 8.231298 -51.873742
-22.316155 9.129414 -50.316272
-21.940230 9.797269 -49.429531
-22.024074 9.819967 -49.386218
-22.738806 9.185889 -50.123187
-25.061527 8.147811 -51.906188
-22.585715 8.845658 -50.350970
-22.703966 9.096286 -50.133623
-21.996005 10.031934 -48.909547
-22.079004 9.968268 -48.815449
-22.079004 9.968268 -48.815449
-22.677842 9.311178 -49.651169
-22.201282 9.657658 -49.116567
-22.490726 9.450699 -49.414929
-22.490726 9.450699 -49.414929
-22.854527 8.956410 -50.020941
-22.823340 9.021607 -49.911405
-22.163817 9.679207 -49.003025
-22.680308 9.261767 -49.530981
-25.940096 8.263935 -51.667016
-22.561147 9.069578 -49.445449
-25.237824 8.262494 -51.226916
-22.787064 9.718676 -48.869101
-22.570404 8.847033 -49.582737
-25.337935 7.714469 -51.494106
-23.193230 8.358211 -49.868240
-23.036099 8.707486 -49.414088
-22.764269 8.916636 -49.009178
-22.793179 8.794745 -49.011038
-23.509454 8.622368 -49.489382
-23.358969 8.619428 -49.330180
-22.980759 8.790679 -48.877887
-23.191177 8.369490 -48.578803
-23.830403 8.267117 -48.748469
-26.248929 6.863195 -50.957707
-23.974483 7.867027 -48.684851
-18.645626 5.354927 -47.037293
-23.968769 7.519033 -48.405748
-22.064698 6.404717 -47.996708
-23.625597 7.227375 -48.214687
-26.034144 6.230259 -50.262319
-25.013668 6.488821 -49.355974
-26.140342 6.272246 -50.200032
-26.085316 6.183910 -50.234252
-24.953057 6.045765 -49.365158
-26.149783 6.092393 -50.092746
-26.221201 6.188714 -50.056434
-24.500923 6.687934 -48.343836
-24.994237 5.856629 -49.286430
-25.232004 5.686987 -49.506166
-24.827536 5.914878 -48.951352
-24.865135 6.007841 -48.841044
-24.503216 6.671193 -47.862098
-24.506724 6.412977 -48.046899
-24.486267 6.341148 -48.047384
-24.583337 6.326657 -48.089096
-25.040243 5.448383 -49.037995
-25.902391 5.240748 -49.631049
-25.686076 4.195083 -49.747639
-25.139554 7.869939 -45.035375
-25.135631 8.185405 -44.656531
-24.841058 8.976511 -43.802219
-25.290171 8.211899 -44.665269
-25.228297 8.458386 -44.394874
-24.652771 9.797502 -43.060871
-24.902034 9.338353 -43.549752
-25.228620 8.807464 -44.091609
-25.228620 8.807464 -44.091609
-25.629902 8.314800 -44.681244
-24.913831 9.255667 -43.399076
-25.290776 9.194833 -43.821844
-25.517461 8.337804 -44.484815
-25.461991 8.379577 -44.364035
-25.748748 8.384444 -44.618367
-25.804036 8.815211 -44.421045
-25.201134 9.512844 -43.348816
-25.663738 8.640519 -44.268383
-25.223687 9.866858 -43.143931
-25.205802 9.788045 -43.146552
-25.794190 8.906861 -44.231946
-25.145366 9.866873 -42.960812
-25.473349 9.679578 -43.356775
-25.485553 9.508000 -43.390277
-26.083698 8.174420 -44.627803
-25.887331 8.884045 -44.000221
-25.943784 8.859904 -44.075553
-25.710273 9.827169 -43.327521
-25.874996 9.210266 -43.780379
-25.987234 8.480828 -44.244815
-25.978139 8.549365 -44.182990
-25.978139 8.549365 -44.182990
-25.978139 8.549365 -44.182990
-25.702584 9.532870 -43.394916
-25.563173 9.736281 -43.119817
-25.840653 9.471998 -43.466000
-26.133311 8.632538 -44.196996
-26.155312 8.116230 -44.443426
-26.371244 8.184757 -44.636918
-25.970240 8.850346 -43.859940
-25.879745 9.535029 -43.323005
-26.064552 9.342453 -43.621424
-25.765507 9.688445 -43.058257
-26.078962 9.780809 -43.367371
-26.078962 9.780809 -43.367371
-25.830643 10.132612 -42.820979
-25.830643 10.132612 -42.820979
-26.316179 9.411299 -43.705339
-26.169649 9.681107 -43.380925
-26.378624 9.485830 -43.658708
-26.159367 9.945410 -43.187009
-26.273768 9.813684 -43.344336
-26.251930 9.868759 -43.290451
-26.259659 9.672825 -43.282301
-26.279426 9.810818 -43.244951
-26.279426 9.810818 -43.244951
-26.573969 9.780942 -43.401698
-26.539321 10.042423 -43.166883
-26.539321 10.042423 -43.166883
-26.463027 10.168990 -42.945244
-22.532434 5.538418 -56.563756
-14.515705 7.247365 -52.767779
-16.763092 7.157533 -53.197772
-16.763092 7.157533 -53.197772
-16.617207 7.784570 -52.479165
-16.960671 6.265779 -53.960410
-21.688689 8.060093 -53.234840
-16.847299 8.427183 -51.492674
-16.492072 7.959834 -51.775230
-16.686623 8.195101 -51.572901
-17.736405 6.802944 -53.248959
-22.867481 5.899580 -55.437614
-16.355402 8.203632 -51.368531
-16.355402 8.203632 -51.368531
-17.676957 6.540266 -53.267067
-17.660288 6.679160 -53.084052
-23.641022 6.209379 -55.143631
-17.436483 7.078318 -52.484657
-16.675783 7.557399 -51.674540
-24.208514 5.988074 -55.230886
-22.189236 5.892409 -54.715447
-23.750457 5.902592 -55.085913
-17.393058 6.488637 -52.524110
-22.455950 7.717755 -52.755374
-22.521412 5.220031 -55.020319
-24.088656 5.811031 -54.949862
-17.935892 6.139339 -52.576056
-18.187036 6.039175 -52.691916
-24.194947 5.808744 -54.886922
-24.194947 5.808744 -54.886922
-18.158725 6.279190 -52.221607
-18.997820 7.068208 -51.609395
-18.657904 7.145117 -51.373084
-19.071834 6.242882 -52.258002
-17.922295 6.352754 -51.382340
-24.938337 5.830052 -53.985280
-25.969625 7.073071 -53.059724
-19.753506 5.846073 -51.019503
-24.558719 5.199213 -53.556692
-23.816678 3.977907 -54.127933
-15.430491 -3.587068 -56.468542
-23.961293 4.054278 -54.054997
-24.319733 4.626790 -53.229047
-19.866875 4.632059 -50.503131
-6.019389 -20.935477 -63.524381
-24.001102 4.270938 -52.937455
-20.671703 4.635589 -50.803008
-23.727584 3.951159 -52.996563
-20.368405 5.663488 -49.772552
-18.542752 -3.578919 -56.152528
-4.182507 -17.601755 -59.381636
-20.373486 4.349466 -50.758019
-19.923939 3.569207 -50.822140
-16.275019 1.388512 -50.205254
-20.370930 4.113382 -50.241882
-20.370930 4.113382 -50.241882
-23.831544 3.235758 -52.936262
-23.950128 3.408316 -52.863533
-24.160311 3.721218 -52.731378
-13.602670 -1.694296 -50.051152
-20.952999 1.307726 -51.954336
-19.369769 -1.515371 -53.035628
-20.960879 1.795255 -51.363562
-20.722256 1.605074 -51.243142
-19.707487 0.946949 -50.580765
-19.041075 0.894226 -50.154614
-20.065047 -0.574703 -51.813658
-16.846008 3.820824 -46.483904
-20.483962 -4.125095 -53.414469
-22.100480 -0.560664 -51.418702
-21.186554 4.929152 -45.058781
-21.188365 5.478353 -44.464113
-21.781697 5.798156 -44.609826
-21.761471 7.320057 -43.740676
-21.621068 7.452784 -43.469578
-21.957031 8.086320 -43.365982
-22.354064 8.153416 -43.604389
-21.784151 7.795101 -43.231267
-21.828887 7.524225 -43.403554
-22.281942 7.710338 -43.599037
-21.918370 7.938471 -43.126177
-22.649993 8.912663 -43.263445
-22.311080 6.904104 -43.973095
-22.487857 6.465622 -44.336352
-22.291286 8.468929 -43.079996
-22.267033 8.893234 -42.694225
-22.286274 8.485779 -42.923173
-22.492799 8.784128 -42.941953
-22.454913 8.385516 -43.107412
-22.523009 8.950322 -42.882127
-22.606577 8.743413 -43.004505
-22.684687 8.659875 -43.118218
-22.684687 8.659875 -43.118218
-22.556739 8.835958 -42.901604
-22.656131 8.694565 -43.044781
-22.585424 7.602150 -43.478370
-22.845011 6.983337 -44.040440
-22.663985 8.025865 -43.251369
-23.003089 8.735875 -43.205433
-22.882859 7.263802 -43.832009
-22.646859 8.915848 -42.758211
-23.072439 7.901066 -43.579724
-23.524734 6.082442 -44.815563
-23.183615 7.280519 -43.834523
-23.183615 7.280519 -43.834523
-23.094411 8.578776 -43.077585
-23.593816 7.840531 -43.920807
-22.719579 8.857840 -42.560901
-23.202439 8.020611 -43.430799
-23.334824 8.536846 -43.256335
-23.334824 8.536846 -43.256335
-23.362772 6.815609 -44.113691
-22.924940 7.348404 -43.425990
-23.109009 8.810016 -42.875728
-23.010235 8.873252 -42.736435
-23.010235 8.873252 -42.736435
-23.038319 9.213805 -42.567972
-23.309900 6.939114 -43.934157
-23.253003 7.810237 -43.422050
-23.264793 6.649451 -43.953086
-23.323408 8.408128 -43.153233
-23.303848 7.764679 -43.423311
-23.477294 6.027365 -44.394396
-24.123824 7.699178 -44.225457
-23.406865 8.232870 -43.147615
-23.425527 7.951633 -43.269113
